-2.289013 -2.735233 5.000000 0.000000 0.000000 1.000000
3.858727 5.000000 3.874983 0.000000 1.000000 0.000000
4.858753 2.217093 5.000000 0.000000 0.000000 1.000000
-4.922373 -5.000000 0.894645 0.000000 -1.000000 0.000000
1.153136 5.000000 0.864872 0.000000 -1.000000 0.000000
-5.000000 -1.491680 0.118450 -1.000000 0.000000 0.000000
-1.491680 5.000000 0.118450 -0.000000 1.000000 0.000000
5.000000 1.491680 0.118450 1.000000 0.000000 -0.000000
1.491680 -5.000000 0.118450 0.000000 -1.000000 0.000000
2.355837 5.000000 2.583067 -0.000000 1.000000 0.000000
-5.000000 -0.503813 2.399307 -1.000000 -0.000000 0.000000
5.000000 -1.153136 0.864872 1.000000 0.000000 -0.000000
-5.000000 3.780120 3.243623 -1.000000 0.000000 -0.000000
4.630994 0.037381 5.000000 0.000000 0.000000 1.000000
-4.004357 5.000000 3.149727 0.000000 1.000000 0.000000
-4.031767 -3.383883 5.000000 0.000000 -0.000000 1.000000
2.011510 -5.000000 3.910963 0.000000 -1.000000 0.000000
-2.083033 1.377563 5.000000 0.000000 0.000000 1.000000
-2.428177 -5.000000 3.924000 0.000000 -1.000000 0.000000
4.665033 -0.357612 5.000000 0.000000 0.000000 1.000000
0.775149 3.909453 5.000000 0.000000 -0.000000 1.000000
1.712213 2.629077 5.000000 0.000000 0.000000 1.000000
-0.314279 -4.546030 5.000000 0.000000 0.000000 1.000000
-5.000000 4.736717 0.265843 -1.000000 0.000000 0.000000
5.000000 -2.065060 4.065963 1.000000 0.000000 0.000000
-5.000000 3.677727 3.648160 -1.000000 0.000000 0.000000
5.000000 2.831896 2.464587 1.000000 0.000000 0.000000
-1.938797 4.757120 5.000000 -0.000000 0.000000 1.000000
-3.273493 -0.754250 5.000000 -0.000000 0.000000 1.000000
-5.000000 -4.171833 4.824950 -1.000000 -0.000000 0.000000
5.000000 -2.016647 2.247160 1.000000 0.000000 0.000000
5.000000 2.188477 4.243737 1.000000 0.000000 -0.000000
3.215070 5.000000 2.019503 0.000000 1.000000 -0.000000
1.277513 -5.000000 0.733618 0.000000 -1.000000 -0.000000
-2.857653 -5.000000 0.373111 0.000000 -1.000000 0.000000
2.639047 0.967387 5.000000 -0.000000 0.000000 1.000000
-2.529837 -4.378377 5.000000 -0.000000 0.000000 1.000000
1.033697 5.000000 2.550520 0.000000 1.000000 -0.000000
-5.000000 3.444117 0.376905 -1.000000 0.000000 0.000000
-1.711000 -1.232137 5.000000 0.000000 0.000000 1.000000
-1.987720 5.000000 0.763906 0.000000 1.000000 0.000000
-3.764287 1.157793 5.000000 0.000000 0.000000 1.000000
0.664523 3.865627 5.000000 0.000000 0.000000 1.000000
0.068678 5.000000 2.107743 0.000000 1.000000 -0.000000
0.095755 2.695343 5.000000 0.000000 0.000000 1.000000
0.935716 -5.000000 1.797877 0.000000 1.000000 0.000000
-5.000000 -0.656174 0.840699 -1.000000 0.000000 0.000000
2.831193 1.799733 5.000000 0.000000 0.000000 1.000000
5.000000 -4.736717 0.265843 1.000000 0.000000 0.000000
-2.077767 -5.000000 2.064627 0.000000 -1.000000 -0.000000
4.729840 5.000000 4.192760 0.000000 1.000000 0.000000
5.000000 4.839200 0.467722 1.000000 0.000000 -0.000000
-1.963310 5.000000 4.786577 0.000000 1.000000 0.000000
-4.855613 0.071257 5.000000 0.000000 0.000000 1.000000
4.839200 -5.000000 0.467722 0.000000 -1.000000 0.000000
4.736717 5.000000 0.265843 -0.000000 1.000000 0.000000
5.000000 4.121010 3.690434 1.000000 0.000000 0.000000
4.597330 -5.000000 3.878743 0.000000 -1.000000 -0.000000
5.000000 -2.819940 2.877477 1.000000 0.000000 0.000000
5.000000 3.089230 3.806367 1.000000 0.000000 0.000000
3.531617 5.000000 4.854904 -0.000000 1.000000 0.000000
-5.000000 2.551483 3.196100 -1.000000 0.000000 0.000000
3.107207 -3.016116 5.000000 0.000000 0.000000 1.000000
-5.000000 0.373396 4.940166 -1.000000 -0.000000 0.000000
-5.000000 -2.637300 4.223930 -1.000000 0.000000 0.000000
1.619737 -2.167117 5.000000 0.000000 0.000000 1.000000
-4.255404 -5.000000 4.216150 0.000000 -1.000000 0.000000
-3.999953 -5.000000 0.150494 0.000000 -1.000000 0.000000
3.999953 5.000000 0.150493 0.000000 1.000000 0.000000
-5.000000 3.999953 0.150493 -1.000000 0.000000 0.000000
5.000000 -3.999953 0.150493 1.000000 0.000000 -0.000000
1.650293 -5.000000 4.935290 0.000000 -1.000000 0.000000
-1.065739 5.000000 2.968457 0.000000 1.000000 0.000000
4.615013 5.000000 2.378603 0.000000 1.000000 -0.000000
-5.000000 -1.506347 0.221063 -1.000000 -0.000000 0.000000
4.152603 1.783060 5.000000 0.000000 0.000000 1.000000
-5.000000 1.561383 2.553317 -1.000000 0.000000 0.000000
1.749143 2.115870 5.000000 0.000000 0.000000 1.000000
-0.591393 -4.354430 5.000000 0.000000 0.000000 1.000000
5.000000 0.809358 1.208743 1.000000 -0.000000 0.000000
5.000000 -3.869470 1.677297 1.000000 0.000000 -0.000000
1.058429 -5.000000 1.200660 0.000000 -1.000000 0.000000
0.823330 5.000000 3.675270 0.000000 1.000000 0.000000
5.000000 -3.310790 0.676584 1.000000 -0.000000 0.000000
-2.809470 0.292767 5.000000 0.000000 0.000000 1.000000
2.831896 -5.000000 2.464587 0.000000 -1.000000 0.000000
3.146700 5.000000 2.122147 0.000000 1.000000 0.000000
-0.079340 5.000000 1.877000 0.000000 1.000000 0.000000
-2.805044 5.000000 4.483563 0.000000 1.000000 0.000000
3.415913 -5.000000 4.104870 -0.000000 -1.000000 0.000000
2.615210 1.343913 5.000000 -0.000000 0.000000 1.000000
-2.074453 3.284717 5.000000 0.000000 0.000000 1.000000
-4.931664 4.127030 5.000000 0.000000 0.000000 1.000000
1.242777 0.975599 5.000000 0.000000 0.000000 1.000000
-4.929207 -4.127913 5.000000 0.000000 0.000000 1.000000
1.135717 -0.636422 5.000000 0.000000 0.000000 1.000000
-5.000000 2.355837 2.583067 -1.000000 0.000000 0.000000
-3.707630 5.000000 1.954973 0.000000 1.000000 0.000000
-5.000000 0.823330 3.675270 -1.000000 -0.000000 0.000000
3.571287 -5.000000 0.836226 0.000000 -1.000000 0.000000
-5.000000 -4.842357 1.234497 -1.000000 0.000000 0.000000
-5.000000 -3.707630 1.954973 -1.000000 0.000000 -0.000000
-4.953530 -5.000000 1.132030 0.000000 -1.000000 0.000000
-0.322611 -5.000000 0.718267 -0.000000 -1.000000 0.000000
0.464576 -5.000000 2.971847 0.000000 1.000000 0.000000
-0.808727 -1.691780 5.000000 0.000000 0.000000 1.000000
5.000000 4.533200 3.637240 1.000000 -0.000000 0.000000
2.919807 -1.079421 5.000000 0.000000 0.000000 1.000000
0.161184 -5.000000 1.162980 0.000000 -1.000000 -0.000000
1.506967 0.663084 5.000000 -0.000000 0.000000 1.000000
-2.156423 -2.779930 5.000000 0.000000 0.000000 1.000000
5.000000 -3.421240 2.724627 1.000000 0.000000 -0.000000
-4.680053 3.145100 5.000000 0.000000 0.000000 1.000000
2.486727 2.581290 5.000000 0.000000 0.000000 1.000000
0.981987 5.000000 1.592783 0.000000 1.000000 0.000000
5.000000 1.022393 4.016733 1.000000 0.000000 0.000000
-5.000000 -4.926760 0.362738 -1.000000 -0.000000 0.000000
5.000000 -2.458097 1.582313 1.000000 0.000000 -0.000000
0.922858 5.000000 2.721437 0.000000 1.000000 -0.000000
-5.000000 2.414320 3.702193 -1.000000 0.000000 0.000000
5.000000 3.631643 2.457780 1.000000 0.000000 0.000000
-0.350505 5.000000 4.198373 0.000000 1.000000 0.000000
-5.000000 -3.483843 3.507687 -1.000000 0.000000 0.000000
-1.506347 5.000000 0.221063 0.000000 1.000000 0.000000
5.000000 1.506347 0.221063 1.000000 -0.000000 0.000000
5.000000 -2.783690 2.051790 1.000000 0.000000 0.000000
-5.000000 -0.129461 0.425208 -1.000000 -0.000000 0.000000
-3.555100 5.000000 1.817093 0.000000 1.000000 0.000000
-4.578627 2.914370 5.000000 -0.000000 0.000000 1.000000
-4.869984 -4.023550 5.000000 -0.000000 0.000000 1.000000
-4.468153 5.000000 3.201060 0.000000 1.000000 0.000000
5.000000 4.121240 2.293880 1.000000 0.000000 0.000000
2.548120 3.418443 5.000000 0.000000 0.000000 1.000000
-5.000000 -0.694576 3.270687 -1.000000 0.000000 -0.000000
0.344871 0.928632 5.000000 0.000000 0.000000 1.000000
2.084236 -4.358660 5.000000 0.000000 0.000000 1.000000
-1.607393 5.000000 1.031706 0.000000 1.000000 0.000000
5.000000 -2.253890 2.833173 1.000000 0.000000 0.000000
-2.580817 -5.000000 4.599033 0.000000 -1.000000 0.000000
4.558923 3.904337 5.000000 0.000000 0.000000 1.000000
4.357757 -5.000000 4.319934 0.000000 -1.000000 -0.000000
-4.380880 4.840843 5.000000 0.000000 0.000000 1.000000
-2.441967 -0.638860 5.000000 0.000000 0.000000 1.000000
0.254065 -3.736343 5.000000 0.000000 0.000000 1.000000
-3.971737 -5.000000 3.754523 0.000000 -1.000000 0.000000
-5.000000 -1.620850 4.699953 -1.000000 0.000000 0.000000
5.000000 -3.389540 1.492570 1.000000 0.000000 0.000000
0.305150 -5.000000 1.210500 -0.000000 1.000000 0.000000
-1.088985 1.847350 5.000000 0.000000 0.000000 1.000000
3.159453 5.000000 4.380964 -0.000000 1.000000 0.000000
-0.917445 -5.000000 3.774310 0.000000 -1.000000 0.000000
-5.000000 1.145380 2.793927 -1.000000 0.000000 0.000000
5.000000 1.046496 4.173063 1.000000 0.000000 0.000000
-3.554207 5.000000 3.218660 0.000000 1.000000 0.000000
5.000000 -4.583703 3.618203 1.000000 0.000000 -0.000000
3.196110 -5.000000 3.240444 0.000000 -1.000000 0.000000
-3.846797 5.000000 2.117750 0.000000 1.000000 0.000000
-1.697767 -5.000000 1.797550 -0.000000 -1.000000 0.000000
3.694057 -2.899560 5.000000 0.000000 0.000000 1.000000
-2.580857 -0.668543 5.000000 0.000000 0.000000 1.000000
5.000000 3.120290 4.906450 1.000000 0.000000 0.000000
-4.717330 -5.000000 1.425730 0.000000 -1.000000 -0.000000
-5.000000 2.609323 1.587530 -1.000000 0.000000 -0.000000
0.661798 2.874910 5.000000 0.000000 0.000000 1.000000
-1.030494 3.734540 5.000000 0.000000 0.000000 1.000000
2.638377 -1.087253 5.000000 -0.000000 0.000000 1.000000
2.238823 5.000000 1.215210 0.000000 1.000000 0.000000
-5.000000 4.251273 2.647040 -1.000000 0.000000 0.000000
2.831403 5.000000 3.396140 0.000000 1.000000 0.000000
5.000000 -3.630317 0.459235 1.000000 0.000000 0.000000
-0.362069 0.428624 5.000000 0.000000 0.000000 1.000000
1.365430 -1.031125 5.000000 0.000000 0.000000 1.000000
3.503540 -4.204910 5.000000 -0.000000 0.000000 1.000000
3.569977 5.000000 3.986887 0.000000 1.000000 0.000000
0.839323 5.000000 3.536550 0.000000 -1.000000 0.000000
-0.008222 -4.114863 5.000000 0.000000 0.000000 1.000000
1.761300 2.380550 5.000000 0.000000 -0.000000 1.000000
2.619797 5.000000 0.877681 0.000000 1.000000 0.000000
0.421404 -5.000000 3.246783 -0.000000 -1.000000 0.000000
5.000000 -4.875903 1.026675 1.000000 -0.000000 0.000000
4.391780 -5.000000 4.917523 -0.000000 -1.000000 0.000000
-2.154890 3.373337 5.000000 0.000000 0.000000 1.000000
5.000000 -2.619797 0.877681 1.000000 0.000000 -0.000000
2.120623 1.402103 5.000000 0.000000 0.000000 1.000000
3.169943 -4.745527 5.000000 0.000000 0.000000 1.000000
5.000000 -3.331770 2.016850 1.000000 -0.000000 0.000000
-3.602083 -2.987327 5.000000 -0.000000 0.000000 1.000000
2.573070 -5.000000 1.278947 -0.000000 -1.000000 0.000000
-3.246250 5.000000 2.392940 0.000000 1.000000 0.000000
-3.209950 5.000000 2.041877 0.000000 1.000000 0.000000
-2.482213 -5.000000 2.195280 -0.000000 -1.000000 0.000000
-5.000000 2.831403 3.396140 -1.000000 -0.000000 0.000000
3.916834 -4.697610 5.000000 0.000000 -0.000000 1.000000
-5.000000 1.644477 1.680593 -1.000000 0.000000 0.000000
-5.000000 0.839323 3.536550 -1.000000 0.000000 0.000000
1.452507 -5.000000 4.319427 0.000000 -1.000000 -0.000000
-4.574540 -5.000000 1.255030 0.000000 -1.000000 -0.000000
4.833530 5.000000 4.482223 0.000000 1.000000 0.000000
-4.928023 -5.000000 2.622547 -0.000000 -1.000000 0.000000
-0.503448 5.000000 4.232383 -0.000000 1.000000 0.000000
2.551483 5.000000 3.196100 -0.000000 1.000000 0.000000
5.000000 -2.376517 4.924527 1.000000 0.000000 -0.000000
-5.000000 2.096450 1.182423 -1.000000 0.000000 0.000000
-0.234566 4.090543 5.000000 0.000000 0.000000 1.000000
-0.900252 0.007227 5.000000 0.000000 -0.000000 1.000000
-3.705877 -4.842337 5.000000 0.000000 0.000000 1.000000
2.785963 0.913179 5.000000 0.000000 0.000000 1.000000
-5.000000 -4.898723 0.881720 -1.000000 0.000000 0.000000
-2.882063 -3.100450 5.000000 0.000000 0.000000 1.000000
-2.170263 4.226443 5.000000 0.000000 0.000000 1.000000
5.000000 2.314577 3.231240 1.000000 -0.000000 0.000000
-3.346843 3.808833 5.000000 -0.000000 0.000000 1.000000
0.852481 5.000000 0.429179 0.000000 1.000000 0.000000
-4.635803 4.351393 5.000000 0.000000 0.000000 1.000000
1.602883 -5.000000 2.299830 -0.000000 -1.000000 0.000000
5.000000 -0.852481 0.429179 1.000000 0.000000 0.000000
4.471483 2.304287 5.000000 0.000000 0.000000 1.000000
4.333934 -5.000000 3.571577 0.000000 -1.000000 0.000000
-4.520247 1.793760 5.000000 -0.000000 0.000000 1.000000
-3.340207 2.967593 5.000000 0.000000 0.000000 1.000000
-1.050123 0.548814 5.000000 0.000000 0.000000 1.000000
5.000000 -0.897059 3.064603 1.000000 -0.000000 0.000000
1.231963 1.848580 5.000000 0.000000 0.000000 1.000000
-3.304827 2.216733 5.000000 0.000000 0.000000 1.000000
-5.000000 -2.342817 1.798757 -1.000000 0.000000 0.000000
-5.000000 -4.105670 0.667684 -1.000000 0.000000 0.000000
5.000000 0.799752 3.009803 1.000000 0.000000 0.000000
-4.319817 -5.000000 3.498870 0.000000 -1.000000 -0.000000
3.779397 -5.000000 0.352494 -0.000000 -1.000000 0.000000
-5.000000 2.153640 0.854217 -1.000000 0.000000 0.000000
3.145540 -1.496560 5.000000 0.000000 0.000000 1.000000
0.808440 4.047047 5.000000 0.000000 0.000000 1.000000
0.779100 -2.611187 5.000000 0.000000 0.000000 1.000000
-5.000000 -4.448657 2.530180 -1.000000 0.000000 -0.000000
1.693933 3.272037 5.000000 0.000000 0.000000 1.000000
-2.992590 -5.000000 3.160393 0.000000 -1.000000 -0.000000
2.265647 -5.000000 2.542557 0.000000 -1.000000 -0.000000
2.879163 -5.000000 4.936076 0.000000 -1.000000 0.000000
0.984272 4.674946 5.000000 -0.000000 0.000000 1.000000
5.000000 4.500186 2.934950 1.000000 0.000000 -0.000000
-0.471074 -2.424314 5.000000 0.000000 0.000000 1.000000
-3.120290 5.000000 4.906450 0.000000 1.000000 -0.000000
5.000000 4.066360 2.519457 1.000000 0.000000 -0.000000
3.958880 -5.000000 4.716833 0.000000 -1.000000 0.000000
0.710044 2.060053 5.000000 0.000000 0.000000 1.000000
-4.540430 -1.836170 5.000000 0.000000 0.000000 1.000000
3.865193 -5.000000 0.270827 0.000000 -1.000000 0.000000
5.000000 -1.871167 4.895793 1.000000 -0.000000 0.000000
-5.000000 1.729623 2.803483 -1.000000 0.000000 0.000000
-5.000000 0.423500 4.067270 -1.000000 0.000000 0.000000
-1.447927 -3.582367 5.000000 -0.000000 0.000000 1.000000
-2.517150 5.000000 4.536153 0.000000 1.000000 0.000000
-1.848797 -5.000000 4.265464 -0.000000 -1.000000 0.000000
-5.000000 0.447673 0.233472 -1.000000 0.000000 -0.000000
-1.731760 -5.000000 4.868220 0.000000 -1.000000 0.000000
5.000000 -1.350330 3.025097 1.000000 -0.000000 0.000000
4.264833 -5.000000 0.123382 -0.000000 -1.000000 0.000000
5.000000 4.264833 0.123382 1.000000 0.000000 0.000000
-4.264833 5.000000 0.123382 0.000000 1.000000 -0.000000
-5.000000 -4.264833 0.123382 -1.000000 0.000000 0.000000
-0.455434 -1.595183 5.000000 0.000000 -0.000000 1.000000
-1.309613 -5.000000 2.182167 0.000000 -1.000000 0.000000
4.217073 5.000000 1.418820 0.000000 1.000000 0.000000
-2.914370 -4.578627 5.000000 0.000000 -0.000000 1.000000
1.340677 -0.018066 5.000000 0.000000 0.000000 1.000000
5.000000 -2.822967 2.355610 1.000000 0.000000 -0.000000
-3.486943 5.000000 0.137126 0.000000 1.000000 -0.000000
-5.000000 -3.486944 0.137126 -1.000000 -0.000000 0.000000
5.000000 3.486944 0.137126 1.000000 -0.000000 0.000000
3.486943 -5.000000 0.137126 0.000000 -1.000000 0.000000
-2.047893 -1.628247 5.000000 0.000000 0.000000 1.000000
4.500187 -5.000000 2.934950 0.000000 -1.000000 0.000000
-3.360250 -5.000000 4.914773 0.000000 -1.000000 0.000000
4.706383 3.549610 5.000000 0.000000 -0.000000 1.000000
4.735514 4.032733 5.000000 -0.000000 0.000000 1.000000
2.893923 -3.942030 5.000000 0.000000 0.000000 1.000000
-4.485230 4.009657 5.000000 0.000000 -0.000000 1.000000
5.000000 -4.532063 1.617690 1.000000 0.000000 0.000000
-2.642010 4.937290 5.000000 -0.000000 0.000000 1.000000
2.414320 5.000000 3.702194 0.000000 1.000000 0.000000
0.210031 -5.000000 3.103690 -0.000000 -1.000000 0.000000
5.000000 0.565979 0.738732 1.000000 0.000000 0.000000
4.665293 4.736587 5.000000 0.000000 0.000000 1.000000
-2.503903 1.786983 5.000000 0.000000 -0.000000 1.000000
-4.513790 2.252720 5.000000 -0.000000 0.000000 1.000000
5.000000 -1.641747 3.306783 1.000000 0.000000 0.000000
2.529837 4.378377 5.000000 0.000000 0.000000 1.000000
5.000000 0.802796 1.462963 1.000000 0.000000 -0.000000
-0.548949 0.436971 5.000000 0.000000 0.000000 1.000000
4.863827 -5.000000 4.948817 0.000000 -1.000000 0.000000
3.101763 -3.803843 5.000000 0.000000 -0.000000 1.000000
1.838537 -5.000000 2.770377 0.000000 -1.000000 0.000000
-4.594060 -4.935857 5.000000 0.000000 0.000000 1.000000
5.000000 2.121730 2.344963 1.000000 0.000000 0.000000
-5.000000 2.386573 1.981247 -1.000000 0.000000 0.000000
1.495740 -5.000000 2.326637 0.000000 -1.000000 0.000000
5.000000 0.906185 0.971194 1.000000 -0.000000 0.000000
-1.510477 -2.526066 5.000000 0.000000 0.000000 1.000000
2.874910 -0.661798 5.000000 -0.000000 0.000000 1.000000
3.638673 2.691197 5.000000 0.000000 0.000000 1.000000
5.000000 0.082391 3.132447 1.000000 -0.000000 0.000000
-2.304063 -5.000000 0.271883 -0.000000 -1.000000 0.000000
-3.848674 2.489583 5.000000 0.000000 0.000000 1.000000
1.544213 5.000000 4.353793 0.000000 1.000000 0.000000
-2.820363 5.000000 2.093787 0.000000 1.000000 0.000000
5.000000 1.158487 1.498377 1.000000 0.000000 0.000000
-5.000000 1.589817 1.306353 -1.000000 0.000000 0.000000
-5.000000 3.711823 2.787297 -1.000000 0.000000 0.000000
-1.444263 -0.575404 5.000000 -0.000000 0.000000 1.000000
1.626360 4.352074 5.000000 -0.000000 0.000000 1.000000
-5.000000 2.761680 3.001623 -1.000000 0.000000 0.000000
0.850234 -2.064927 5.000000 0.000000 0.000000 1.000000
-3.426550 5.000000 3.260280 0.000000 1.000000 -0.000000
1.594917 2.650293 5.000000 0.000000 -0.000000 1.000000
1.455357 -5.000000 4.193153 0.000000 -1.000000 0.000000
1.792323 -5.000000 2.035677 0.000000 -1.000000 0.000000
-2.364203 3.027094 5.000000 0.000000 -0.000000 1.000000
5.000000 1.297953 0.982504 1.000000 0.000000 -0.000000
-5.000000 2.238823 1.215210 -1.000000 0.000000 0.000000
-0.200407 -5.000000 2.015440 0.000000 1.000000 0.000000
-0.320805 -5.000000 1.752527 0.000000 1.000000 0.000000
-1.869980 -5.000000 3.671190 -0.000000 -1.000000 0.000000
-1.349600 4.174643 5.000000 0.000000 0.000000 1.000000
-1.691150 4.340754 5.000000 -0.000000 0.000000 1.000000
-0.839330 -5.000000 3.541133 0.000000 -1.000000 0.000000
-5.000000 3.723993 0.232041 -1.000000 0.000000 -0.000000
1.930937 -5.000000 3.202550 0.000000 -1.000000 -0.000000
-3.909453 0.775149 5.000000 0.000000 0.000000 1.000000
-4.299563 2.442203 5.000000 0.000000 0.000000 1.000000
1.363470 5.000000 4.070777 0.000000 1.000000 -0.000000
2.200160 5.000000 0.374257 0.000000 1.000000 0.000000
-3.306703 -3.604690 5.000000 0.000000 0.000000 1.000000
5.000000 -2.200160 0.374257 1.000000 0.000000 0.000000
-1.011913 0.791942 5.000000 0.000000 0.000000 1.000000
-5.000000 4.344827 3.749523 -1.000000 0.000000 0.000000
3.764287 -1.157793 5.000000 0.000000 0.000000 1.000000
-2.388100 5.000000 2.583510 -0.000000 1.000000 0.000000
5.000000 3.868750 3.760813 1.000000 -0.000000 0.000000
-4.867910 -5.000000 4.469443 0.000000 -1.000000 0.000000
-0.012973 -1.890380 5.000000 -0.000000 0.000000 1.000000
1.374783 -5.000000 4.721210 0.000000 -1.000000 0.000000
4.736703 -4.040547 5.000000 -0.000000 0.000000 1.000000
-1.541217 5.000000 1.921817 0.000000 1.000000 -0.000000
-3.100450 2.882063 5.000000 0.000000 0.000000 1.000000
1.405053 1.220143 5.000000 0.000000 -0.000000 1.000000
0.259228 -5.000000 4.306490 -0.000000 -1.000000 0.000000
1.835243 1.214590 5.000000 0.000000 0.000000 1.000000
-3.927363 5.000000 2.502130 0.000000 1.000000 0.000000
-1.790430 -5.000000 3.904823 0.000000 -1.000000 -0.000000
-3.962500 5.000000 0.320096 0.000000 1.000000 -0.000000
-3.291783 -5.000000 2.026927 0.000000 -1.000000 0.000000
1.644477 5.000000 1.680593 0.000000 1.000000 -0.000000
2.241340 -5.000000 0.157493 0.000000 -1.000000 0.000000
-2.241340 5.000000 0.157493 0.000000 1.000000 -0.000000
-5.000000 -2.241340 0.157493 -1.000000 0.000000 0.000000
5.000000 2.241340 0.157493 1.000000 0.000000 -0.000000
1.447927 3.582367 5.000000 0.000000 0.000000 1.000000
4.515443 -4.141267 5.000000 0.000000 0.000000 1.000000
-5.000000 -4.747937 4.880910 -1.000000 0.000000 0.000000
4.942230 5.000000 0.141529 -0.000000 1.000000 0.000000
-5.000000 4.942230 0.141529 -1.000000 0.000000 0.000000
5.000000 -4.942230 0.141529 1.000000 0.000000 0.000000
-4.942230 -5.000000 0.141529 0.000000 -1.000000 0.000000
2.386947 -4.581417 5.000000 0.000000 0.000000 1.000000
-3.003777 0.477816 5.000000 0.000000 0.000000 1.000000
0.787427 4.530440 5.000000 0.000000 0.000000 1.000000
-2.219357 -2.384164 5.000000 0.000000 0.000000 1.000000
-0.652467 -0.547663 5.000000 0.000000 0.000000 1.000000
-5.000000 -4.211960 2.202583 -1.000000 -0.000000 0.000000
4.000847 1.953750 5.000000 0.000000 0.000000 1.000000
4.790137 -2.783733 5.000000 0.000000 0.000000 1.000000
1.112431 -2.040923 5.000000 0.000000 0.000000 1.000000
1.483467 -5.000000 1.140265 -0.000000 -1.000000 0.000000
-2.611187 -0.779100 5.000000 0.000000 -0.000000 1.000000
-1.110341 5.000000 3.664007 0.000000 -1.000000 0.000000
5.000000 -4.687693 2.769507 1.000000 0.000000 0.000000
-3.973350 -2.277363 5.000000 -0.000000 0.000000 1.000000
-5.000000 -3.323137 3.884937 -1.000000 0.000000 -0.000000
-5.000000 -3.537527 1.056413 -1.000000 0.000000 -0.000000
-5.000000 0.036556 1.010180 -1.000000 0.000000 0.000000
5.000000 -4.303116 4.241573 1.000000 0.000000 -0.000000
-4.871810 4.024547 5.000000 0.000000 0.000000 1.000000
0.790045 -5.000000 0.447560 0.000000 1.000000 0.000000
-5.000000 -3.239710 2.817554 -1.000000 0.000000 -0.000000
0.472808 5.000000 3.396247 0.000000 -1.000000 0.000000
5.000000 3.537527 1.056413 1.000000 0.000000 0.000000
-1.180361 5.000000 3.783987 0.000000 1.000000 -0.000000
-5.000000 -3.254067 2.254127 -1.000000 -0.000000 0.000000
4.267133 -5.000000 2.432880 -0.000000 -1.000000 0.000000
0.960894 1.483250 5.000000 0.000000 -0.000000 1.000000
4.141267 4.515443 5.000000 0.000000 0.000000 1.000000
0.496668 -5.000000 1.818250 0.000000 -1.000000 0.000000
-0.785206 5.000000 1.062733 0.000000 1.000000 0.000000
3.814713 5.000000 1.933187 0.000000 1.000000 -0.000000
5.000000 2.745037 4.053490 1.000000 0.000000 0.000000
5.000000 -1.605413 2.045353 1.000000 0.000000 0.000000
1.554127 5.000000 3.638587 0.000000 1.000000 0.000000
-2.534737 -5.000000 2.739933 0.000000 -1.000000 0.000000
1.705523 -5.000000 2.864944 -0.000000 -1.000000 0.000000
-5.000000 -0.223935 1.808337 -1.000000 0.000000 -0.000000
4.055423 5.000000 1.370467 0.000000 1.000000 0.000000
5.000000 4.747937 4.880910 1.000000 0.000000 0.000000
2.761680 5.000000 3.001623 0.000000 1.000000 0.000000
5.000000 -2.928757 4.258750 1.000000 0.000000 0.000000
5.000000 0.069379 2.600690 1.000000 0.000000 0.000000
-0.123998 -4.447017 5.000000 -0.000000 0.000000 1.000000
5.000000 1.204850 1.244020 1.000000 0.000000 -0.000000
-2.558256 -5.000000 0.753965 0.000000 -1.000000 0.000000
3.622630 5.000000 3.040106 0.000000 1.000000 0.000000
-5.000000 0.472808 3.396247 -1.000000 0.000000 0.000000
0.523490 3.254773 5.000000 0.000000 0.000000 1.000000
3.974047 -5.000000 2.148573 -0.000000 -1.000000 0.000000
-5.000000 -2.549740 2.068980 -1.000000 0.000000 0.000000
2.338453 0.130871 5.000000 0.000000 0.000000 1.000000
-3.120177 -5.000000 1.450647 0.000000 -1.000000 0.000000
-4.935857 -4.427393 5.000000 -0.000000 0.000000 1.000000
-5.000000 -0.314613 3.557203 -1.000000 0.000000 0.000000
-1.557287 -1.756273 5.000000 0.000000 0.000000 1.000000
4.937290 2.642010 5.000000 0.000000 -0.000000 1.000000
-4.204507 1.444110 5.000000 0.000000 -0.000000 1.000000
-5.000000 3.275557 3.279907 -1.000000 0.000000 0.000000
-5.000000 -3.927363 2.502130 -1.000000 0.000000 -0.000000
-5.000000 1.554127 3.638587 -1.000000 0.000000 0.000000
1.302780 -5.000000 2.921893 0.000000 -1.000000 -0.000000
-5.000000 0.805831 2.692727 -1.000000 0.000000 0.000000
-3.404567 1.261807 5.000000 0.000000 0.000000 1.000000
5.000000 -0.615179 4.910980 1.000000 -0.000000 0.000000
-3.370054 5.000000 2.849043 0.000000 1.000000 -0.000000
5.000000 3.209950 2.041877 1.000000 0.000000 0.000000
1.686290 -3.403840 5.000000 0.000000 0.000000 1.000000
3.788383 -0.260548 5.000000 0.000000 0.000000 1.000000
-5.000000 -4.111957 2.646657 -1.000000 0.000000 0.000000
-5.000000 3.771597 0.454494 -1.000000 0.000000 0.000000
-5.000000 -2.251303 1.080040 -1.000000 0.000000 0.000000
2.965930 -5.000000 1.283290 0.000000 -1.000000 0.000000
-4.000847 -1.953750 5.000000 0.000000 0.000000 1.000000
3.179027 5.000000 0.162315 -0.000000 1.000000 0.000000
-5.000000 3.179027 0.162315 -1.000000 0.000000 0.000000
5.000000 -3.179027 0.162315 1.000000 0.000000 0.000000
-3.179017 -5.000000 0.162298 0.000000 -1.000000 -0.000000
-5.000000 -3.631137 2.862250 -1.000000 0.000000 0.000000
-5.000000 -1.571687 3.364863 -1.000000 0.000000 0.000000
-5.000000 2.526213 1.965467 -1.000000 -0.000000 0.000000
-0.069171 -5.000000 3.541600 0.000000 -1.000000 -0.000000
2.517150 -5.000000 4.536153 0.000000 -1.000000 0.000000
5.000000 2.828633 3.107487 1.000000 0.000000 0.000000
-3.529853 5.000000 1.496293 0.000000 1.000000 -0.000000
-1.783060 4.152603 5.000000 0.000000 0.000000 1.000000
3.820710 -3.298007 5.000000 0.000000 0.000000 1.000000
1.157793 3.764287 5.000000 0.000000 0.000000 1.000000
3.222987 3.397883 5.000000 0.000000 0.000000 1.000000
-5.000000 -2.960837 4.702993 -1.000000 0.000000 0.000000
5.000000 -4.905770 3.890280 1.000000 0.000000 0.000000
0.857480 2.586510 5.000000 0.000000 -0.000000 1.000000
-5.000000 2.157350 4.594603 -1.000000 -0.000000 0.000000
2.201080 5.000000 2.386990 0.000000 1.000000 0.000000
2.941977 2.275064 5.000000 0.000000 0.000000 1.000000
0.260737 0.369767 5.000000 0.000000 0.000000 1.000000
-3.742537 -0.420415 5.000000 0.000000 -0.000000 1.000000
-5.000000 0.175906 2.547680 -1.000000 0.000000 0.000000
-0.360810 1.948387 5.000000 0.000000 0.000000 1.000000
1.832297 1.648587 5.000000 0.000000 0.000000 1.000000
2.601960 -4.702647 5.000000 -0.000000 0.000000 1.000000
5.000000 -4.918420 3.621293 1.000000 0.000000 0.000000
-1.990757 -4.383550 5.000000 0.000000 0.000000 1.000000
1.550173 -2.846670 5.000000 0.000000 0.000000 1.000000
-4.707870 -0.979413 5.000000 0.000000 -0.000000 1.000000
-2.537387 -3.650363 5.000000 0.000000 0.000000 1.000000
-5.000000 3.777570 0.988283 -1.000000 0.000000 0.000000
5.000000 -3.188060 0.755368 1.000000 0.000000 -0.000000
-4.926760 5.000000 0.362738 0.000000 1.000000 0.000000
-5.000000 1.707827 2.611567 -1.000000 0.000000 0.000000
-4.211370 2.627990 5.000000 0.000000 0.000000 1.000000
4.044037 -5.000000 1.511430 0.000000 -1.000000 0.000000
2.388100 -5.000000 2.583510 0.000000 -1.000000 0.000000
1.993820 -5.000000 4.891017 0.000000 -1.000000 0.000000
3.042340 5.000000 2.941053 -0.000000 1.000000 0.000000
0.677383 -5.000000 3.120887 -0.000000 -1.000000 0.000000
2.495430 -4.168900 5.000000 0.000000 0.000000 1.000000
-4.583680 -1.226807 5.000000 0.000000 0.000000 1.000000
-0.984272 -4.674946 5.000000 0.000000 0.000000 1.000000
-0.182048 -5.000000 2.676617 0.000000 -1.000000 -0.000000
5.000000 0.956389 4.830516 1.000000 0.000000 0.000000
1.540423 -4.053580 5.000000 0.000000 0.000000 1.000000
-5.000000 1.590070 0.337047 -1.000000 -0.000000 0.000000
-1.740173 5.000000 4.209647 0.000000 1.000000 -0.000000
4.331807 -5.000000 1.770007 0.000000 -1.000000 -0.000000
-2.502397 5.000000 2.357633 0.000000 1.000000 -0.000000
5.000000 4.105670 0.667684 1.000000 -0.000000 0.000000
-0.356980 -1.017096 5.000000 0.000000 0.000000 1.000000
-1.790523 -5.000000 0.187328 0.000000 -1.000000 0.000000
-0.379039 -4.932507 5.000000 0.000000 0.000000 1.000000
0.196316 -5.000000 2.862397 0.000000 -1.000000 0.000000
-1.578620 -5.000000 0.643051 0.000000 -1.000000 0.000000
-5.000000 -3.306203 4.431990 -1.000000 0.000000 0.000000
-5.000000 3.072240 1.161273 -1.000000 0.000000 0.000000
3.443380 5.000000 3.796137 0.000000 1.000000 0.000000
1.790590 5.000000 0.187360 0.000000 1.000000 0.000000
-5.000000 1.790590 0.187360 -1.000000 0.000000 0.000000
5.000000 -1.790590 0.187360 1.000000 -0.000000 0.000000
-5.000000 1.605413 2.045353 -1.000000 0.000000 0.000000
4.031767 3.383883 5.000000 0.000000 0.000000 1.000000
-2.888227 5.000000 3.922297 0.000000 1.000000 0.000000
-1.504137 5.000000 0.814412 0.000000 1.000000 0.000000
0.174507 5.000000 1.347043 0.000000 1.000000 -0.000000
-2.138440 5.000000 1.271013 0.000000 1.000000 -0.000000
-3.646147 1.175917 5.000000 0.000000 0.000000 1.000000
5.000000 3.846797 2.117750 1.000000 -0.000000 0.000000
-1.957697 -5.000000 1.812630 0.000000 -1.000000 0.000000
-5.000000 4.699883 1.290067 -1.000000 0.000000 0.000000
-5.000000 4.065623 4.345097 -1.000000 0.000000 0.000000
-5.000000 2.038307 3.945867 -1.000000 0.000000 0.000000
-3.312973 -1.917107 5.000000 0.000000 0.000000 1.000000
-5.000000 4.720533 3.176154 -1.000000 0.000000 0.000000
2.326733 4.299307 5.000000 -0.000000 0.000000 1.000000
0.914152 -0.131437 5.000000 -0.000000 0.000000 1.000000
-0.108854 3.128227 5.000000 -0.000000 0.000000 1.000000
0.662906 2.619620 5.000000 0.000000 0.000000 1.000000
2.289013 2.735233 5.000000 0.000000 0.000000 1.000000
0.938563 -5.000000 1.439190 -0.000000 -1.000000 0.000000
-2.354027 2.411700 5.000000 -0.000000 0.000000 1.000000
-3.039433 2.598820 5.000000 0.000000 0.000000 1.000000
-1.292937 -5.000000 3.352357 0.000000 -1.000000 0.000000
-5.000000 3.658007 1.745910 -1.000000 -0.000000 0.000000
3.370770 -5.000000 4.656257 0.000000 -1.000000 0.000000
-2.393720 5.000000 2.860193 0.000000 1.000000 0.000000
-5.000000 3.157470 1.577940 -1.000000 0.000000 0.000000
-5.000000 1.804013 2.520430 -1.000000 0.000000 0.000000
5.000000 4.455593 2.403610 1.000000 0.000000 0.000000
-1.872113 5.000000 4.138873 0.000000 1.000000 0.000000
-3.080793 0.878696 5.000000 -0.000000 0.000000 1.000000
-5.000000 2.717183 0.354531 -1.000000 0.000000 0.000000
-5.000000 2.201080 2.386990 -1.000000 0.000000 0.000000
-1.365467 1.031132 5.000000 0.000000 0.000000 1.000000
-4.567143 2.475930 5.000000 -0.000000 0.000000 1.000000
1.377163 5.000000 2.882480 0.000000 1.000000 -0.000000
-1.917743 -2.532883 5.000000 0.000000 0.000000 1.000000
-4.124477 -5.000000 3.726380 0.000000 -1.000000 0.000000
-1.921840 -5.000000 0.937127 0.000000 -1.000000 0.000000
-1.629793 3.667900 5.000000 0.000000 0.000000 1.000000
4.056537 -5.000000 0.257314 0.000000 -1.000000 -0.000000
0.538184 -3.144897 5.000000 0.000000 0.000000 1.000000
5.000000 3.389640 1.930627 1.000000 0.000000 0.000000
5.000000 2.485987 2.486927 1.000000 0.000000 0.000000
-4.248067 4.834194 5.000000 0.000000 0.000000 1.000000
0.641518 5.000000 1.486943 0.000000 1.000000 0.000000
3.663880 5.000000 0.758226 -0.000000 1.000000 0.000000
-4.600246 -1.563363 5.000000 0.000000 0.000000 1.000000
5.000000 -2.238823 1.215210 1.000000 -0.000000 0.000000
5.000000 -0.641518 1.486943 1.000000 0.000000 0.000000
-5.000000 -1.247853 2.541667 -1.000000 0.000000 0.000000
5.000000 -3.048833 3.105337 1.000000 0.000000 0.000000
-5.000000 0.724055 2.582803 -1.000000 0.000000 -0.000000
5.000000 4.919280 3.872573 1.000000 -0.000000 0.000000
0.361137 -5.000000 4.919233 0.000000 -1.000000 0.000000
1.236270 -0.958241 5.000000 0.000000 0.000000 1.000000
-3.483567 5.000000 2.228380 0.000000 1.000000 -0.000000
1.805660 5.000000 2.360890 0.000000 1.000000 0.000000
5.000000 -1.644477 1.680593 1.000000 0.000000 -0.000000
-5.000000 4.534590 2.109013 -1.000000 0.000000 0.000000
-3.688233 -2.549933 5.000000 0.000000 -0.000000 1.000000
-0.801415 3.103297 5.000000 0.000000 0.000000 1.000000
-3.222054 -5.000000 4.848087 0.000000 -1.000000 -0.000000
-5.000000 -1.994013 2.538547 -1.000000 0.000000 0.000000
5.000000 2.440223 3.204697 1.000000 0.000000 0.000000
-0.960894 -1.483250 5.000000 0.000000 0.000000 1.000000
5.000000 -4.332870 1.325230 1.000000 0.000000 0.000000
3.617940 -3.103557 5.000000 0.000000 0.000000 1.000000
-1.242777 -0.975599 5.000000 0.000000 0.000000 1.000000
-4.054453 -5.000000 1.377267 0.000000 -1.000000 -0.000000
-3.323137 5.000000 3.884937 0.000000 1.000000 0.000000
-5.000000 -4.836946 2.332920 -1.000000 0.000000 -0.000000
-5.000000 3.438180 2.129407 -1.000000 0.000000 0.000000
4.332870 5.000000 1.325230 0.000000 1.000000 0.000000
-0.725108 5.000000 1.312463 -0.000000 1.000000 0.000000
-2.691000 2.074907 5.000000 0.000000 0.000000 1.000000
-2.838993 -5.000000 1.508160 0.000000 -1.000000 0.000000
5.000000 -0.174507 1.347043 1.000000 0.000000 0.000000
3.665303 -5.000000 3.309900 0.000000 -1.000000 0.000000
-0.406952 -0.111978 5.000000 0.000000 -0.000000 1.000000
5.000000 2.949760 2.109173 1.000000 0.000000 0.000000
-3.445920 -5.000000 2.358203 0.000000 -1.000000 -0.000000
4.317390 4.012343 5.000000 -0.000000 0.000000 1.000000
5.000000 -3.622630 3.040107 1.000000 0.000000 0.000000
5.000000 -3.997114 2.349067 1.000000 0.000000 0.000000
-5.000000 -1.243363 1.819147 -1.000000 0.000000 0.000000
-5.000000 0.641518 1.486943 -1.000000 0.000000 -0.000000
-5.000000 -3.596240 3.894204 -1.000000 0.000000 -0.000000
-0.787427 -4.530440 5.000000 0.000000 -0.000000 1.000000
-4.042113 -5.000000 1.007622 0.000000 -1.000000 0.000000
-3.444113 -5.000000 0.376898 0.000000 -1.000000 0.000000
-3.254773 0.523490 5.000000 0.000000 0.000000 1.000000
4.936897 -3.115877 5.000000 0.000000 0.000000 1.000000
-0.505789 -4.856300 5.000000 0.000000 0.000000 1.000000
5.000000 -3.446107 1.167883 1.000000 0.000000 -0.000000
-2.887043 -3.929163 5.000000 0.000000 0.000000 1.000000
5.000000 3.245440 4.832750 1.000000 0.000000 0.000000
-3.713786 -5.000000 1.527547 0.000000 -1.000000 0.000000
-5.000000 -1.452507 4.319427 -1.000000 0.000000 0.000000
0.607997 -5.000000 2.320103 0.000000 -1.000000 0.000000
-3.344380 -5.000000 0.331560 0.000000 -1.000000 -0.000000
4.075960 -5.000000 0.513175 0.000000 -1.000000 0.000000
-4.141780 4.495740 5.000000 -0.000000 0.000000 1.000000
2.639163 5.000000 1.339667 0.000000 1.000000 0.000000
-5.000000 0.901773 0.555741 -1.000000 0.000000 0.000000
-2.729170 5.000000 4.398916 0.000000 1.000000 0.000000
4.369390 0.734933 5.000000 0.000000 0.000000 1.000000
-1.764010 5.000000 3.916713 0.000000 1.000000 0.000000
-3.370723 5.000000 0.343960 0.000000 1.000000 -0.000000
-4.947166 5.000000 4.119013 0.000000 1.000000 0.000000
-5.000000 -0.052178 0.569813 -1.000000 0.000000 0.000000
-2.211553 -1.481000 5.000000 0.000000 0.000000 1.000000
-5.000000 2.200160 0.374257 -1.000000 0.000000 0.000000
-2.160427 -0.914579 5.000000 -0.000000 0.000000 1.000000
5.000000 -3.464540 4.201193 1.000000 0.000000 -0.000000
-3.886423 1.854153 5.000000 0.000000 0.000000 1.000000
-3.448600 -5.000000 2.843133 0.000000 -1.000000 0.000000
-2.951980 -5.000000 3.631184 0.000000 -1.000000 -0.000000
-3.581896 -5.000000 1.338103 0.000000 -1.000000 0.000000
-5.000000 1.604153 1.438917 -1.000000 0.000000 0.000000
-4.759710 -5.000000 4.251617 0.000000 -1.000000 0.000000
5.000000 2.232173 0.719100 1.000000 0.000000 0.000000
4.457130 -1.412487 5.000000 0.000000 0.000000 1.000000
-5.000000 -0.589812 3.944700 -1.000000 0.000000 0.000000
-0.575412 1.444260 5.000000 -0.000000 0.000000 1.000000
2.306977 -5.000000 3.668140 0.000000 -1.000000 0.000000
1.350330 5.000000 3.025097 0.000000 1.000000 0.000000
-2.490303 5.000000 1.816147 0.000000 1.000000 0.000000
5.000000 2.594513 2.531773 1.000000 0.000000 -0.000000
2.038307 5.000000 3.945867 0.000000 1.000000 0.000000
1.045457 1.869490 5.000000 0.000000 -0.000000 1.000000
-5.000000 3.329987 0.551943 -1.000000 0.000000 0.000000
-5.000000 -4.420867 3.056347 -1.000000 0.000000 0.000000
5.000000 -0.799763 2.422510 1.000000 0.000000 -0.000000
-5.000000 -0.037946 0.306963 -1.000000 0.000000 0.000000
-5.000000 0.486529 4.590673 -1.000000 0.000000 0.000000
-4.928983 5.000000 1.124053 0.000000 1.000000 0.000000
-0.029913 -0.748134 5.000000 0.000000 -0.000000 1.000000
3.785480 -4.507340 5.000000 0.000000 -0.000000 1.000000
0.328559 -5.000000 2.070307 0.000000 1.000000 0.000000
2.393720 -5.000000 2.860193 0.000000 -1.000000 -0.000000
5.000000 1.483467 1.140265 1.000000 0.000000 0.000000
5.000000 4.722717 3.033243 1.000000 0.000000 0.000000
3.729537 -5.000000 3.682203 -0.000000 -1.000000 0.000000
-1.717007 -5.000000 4.378443 0.000000 -1.000000 0.000000
-4.152603 -1.783060 5.000000 -0.000000 0.000000 1.000000
5.000000 3.554207 3.218660 1.000000 0.000000 0.000000
3.731677 -0.097021 5.000000 0.000000 0.000000 1.000000
-5.000000 -2.232173 0.719100 -1.000000 -0.000000 0.000000
-5.000000 0.525453 1.953490 -1.000000 0.000000 0.000000
3.667900 1.629793 5.000000 0.000000 -0.000000 1.000000
-5.000000 1.350330 3.025097 -1.000000 -0.000000 0.000000
5.000000 -3.777570 0.988283 1.000000 0.000000 0.000000
4.127030 4.931664 5.000000 -0.000000 0.000000 1.000000
2.232173 -5.000000 0.719100 0.000000 -1.000000 0.000000
-2.486727 -2.581290 5.000000 0.000000 0.000000 1.000000
-3.301333 -5.000000 2.135443 0.000000 -1.000000 -0.000000
0.275630 -2.655670 5.000000 0.000000 0.000000 1.000000
4.712797 5.000000 2.002637 0.000000 1.000000 -0.000000
3.575763 -3.621213 5.000000 0.000000 0.000000 1.000000
-0.976973 -4.068303 5.000000 0.000000 0.000000 1.000000
5.000000 0.161184 1.162980 1.000000 -0.000000 0.000000
-5.000000 4.920253 2.378263 -1.000000 0.000000 -0.000000
2.640930 3.213913 5.000000 0.000000 0.000000 1.000000
-5.000000 -2.656067 3.867273 -1.000000 0.000000 0.000000
-1.779260 5.000000 4.890477 0.000000 1.000000 0.000000
2.324013 -0.565477 5.000000 0.000000 0.000000 1.000000
2.007260 -5.000000 4.584310 0.000000 -1.000000 0.000000
-2.615210 -1.343913 5.000000 0.000000 0.000000 1.000000
5.000000 0.421465 2.169680 1.000000 -0.000000 0.000000
-0.172731 3.260797 5.000000 0.000000 0.000000 1.000000
5.000000 -0.256807 4.853473 1.000000 -0.000000 0.000000
1.130200 -4.914873 5.000000 0.000000 0.000000 1.000000
-2.356130 -4.579863 5.000000 0.000000 0.000000 1.000000
-5.000000 3.333053 2.562740 -1.000000 0.000000 0.000000
4.722717 -5.000000 3.033243 0.000000 -1.000000 0.000000
0.260456 3.037153 5.000000 0.000000 -0.000000 1.000000
-2.976707 5.000000 0.149382 0.000000 1.000000 0.000000
5.000000 2.976707 0.149382 1.000000 0.000000 -0.000000
2.976707 -5.000000 0.149382 0.000000 -1.000000 0.000000
-5.000000 -2.976707 0.149382 -1.000000 0.000000 0.000000
4.880607 3.221720 5.000000 0.000000 0.000000 1.000000
-2.232173 5.000000 0.719100 0.000000 1.000000 0.000000
-5.000000 3.163620 1.803777 -1.000000 0.000000 0.000000
-5.000000 0.129998 3.417167 -1.000000 0.000000 0.000000
5.000000 2.379827 4.894477 1.000000 -0.000000 0.000000
-5.000000 -1.706347 2.526310 -1.000000 0.000000 -0.000000
-0.662906 -2.619620 5.000000 0.000000 0.000000 1.000000
3.245197 -4.654347 5.000000 0.000000 0.000000 1.000000
2.482437 -3.481930 5.000000 -0.000000 0.000000 1.000000
3.019890 -5.000000 2.218660 0.000000 -1.000000 0.000000
-5.000000 2.319840 4.161586 -1.000000 0.000000 0.000000
-4.098550 -3.481437 5.000000 0.000000 0.000000 1.000000
-5.000000 2.361770 1.024239 -1.000000 0.000000 0.000000
3.402140 -5.000000 1.469290 0.000000 -1.000000 0.000000
0.945150 -5.000000 3.058743 -0.000000 -1.000000 0.000000
4.068463 -2.445193 5.000000 0.000000 0.000000 1.000000
5.000000 4.736043 1.879960 1.000000 -0.000000 0.000000
5.000000 -2.260694 4.697793 1.000000 0.000000 0.000000
5.000000 3.734690 3.963707 1.000000 0.000000 -0.000000
5.000000 -4.845400 2.250893 1.000000 0.000000 0.000000
3.152787 -1.714317 5.000000 0.000000 0.000000 1.000000
1.872820 0.127458 5.000000 -0.000000 0.000000 1.000000
-4.656900 5.000000 2.110503 0.000000 1.000000 0.000000
5.000000 0.188937 3.481620 1.000000 0.000000 0.000000
-5.000000 3.614580 4.419437 -1.000000 0.000000 0.000000
5.000000 -4.700410 2.249097 1.000000 0.000000 0.000000
-5.000000 0.931536 2.080003 -1.000000 0.000000 -0.000000
2.117007 -5.000000 3.997133 0.000000 -1.000000 0.000000
5.000000 -4.699883 1.290067 1.000000 0.000000 -0.000000
5.000000 1.001173 0.571117 1.000000 0.000000 0.000000
4.845303 5.000000 3.227243 0.000000 1.000000 -0.000000
-5.000000 3.663880 0.758226 -1.000000 0.000000 0.000000
5.000000 4.866447 3.991587 1.000000 0.000000 0.000000
-0.565979 5.000000 0.738732 0.000000 1.000000 0.000000
-4.010410 3.176297 5.000000 -0.000000 0.000000 1.000000
-3.222987 -3.397883 5.000000 0.000000 0.000000 1.000000
-0.906185 5.000000 0.971194 -0.000000 -1.000000 0.000000
2.588320 5.000000 4.005480 0.000000 1.000000 0.000000
0.767806 3.333460 5.000000 0.000000 0.000000 1.000000
4.845057 1.002764 5.000000 0.000000 0.000000 1.000000
0.360982 5.000000 4.354160 0.000000 1.000000 0.000000
1.397253 1.460140 5.000000 0.000000 0.000000 1.000000
5.000000 -0.133873 3.181400 1.000000 0.000000 -0.000000
0.148984 2.564510 5.000000 0.000000 0.000000 1.000000
5.000000 -0.477297 1.802360 1.000000 0.000000 -0.000000
-3.336513 -0.943243 5.000000 0.000000 0.000000 1.000000
-2.829383 -5.000000 3.690747 0.000000 -1.000000 0.000000
4.708780 2.734020 5.000000 0.000000 0.000000 1.000000
-0.750105 -5.000000 3.881610 -0.000000 -1.000000 0.000000
2.004590 -5.000000 2.419103 0.000000 -1.000000 0.000000
1.310200 3.556107 5.000000 0.000000 0.000000 1.000000
2.061023 5.000000 3.685740 0.000000 1.000000 0.000000
3.783180 5.000000 4.310477 0.000000 1.000000 0.000000
5.000000 3.023127 1.428037 1.000000 -0.000000 0.000000
1.626310 -5.000000 3.510263 0.000000 -1.000000 -0.000000
1.609060 3.973307 5.000000 0.000000 -0.000000 1.000000
4.111957 -5.000000 2.646657 0.000000 -1.000000 0.000000
-4.876160 5.000000 4.231580 0.000000 1.000000 0.000000
-1.114123 -4.687133 5.000000 -0.000000 0.000000 1.000000
-0.864777 1.140513 5.000000 0.000000 0.000000 1.000000
4.921800 1.626007 5.000000 0.000000 -0.000000 1.000000
-5.000000 3.117547 4.618703 -1.000000 0.000000 0.000000
-4.047047 0.808440 5.000000 0.000000 0.000000 1.000000
1.701673 4.627523 5.000000 0.000000 0.000000 1.000000
0.009289 -5.000000 4.696206 0.000000 -1.000000 0.000000
-4.747937 5.000000 4.880910 0.000000 1.000000 0.000000
-4.329183 -0.032454 5.000000 0.000000 0.000000 1.000000
-2.833793 -2.550767 5.000000 0.000000 0.000000 1.000000
5.000000 3.998050 3.974413 1.000000 0.000000 0.000000
3.734690 -5.000000 3.963707 0.000000 -1.000000 0.000000
-0.447156 -5.000000 2.719240 0.000000 -1.000000 0.000000
0.016189 5.000000 4.851954 -0.000000 1.000000 0.000000
-3.266463 2.112540 5.000000 -0.000000 0.000000 1.000000
2.275064 -2.941977 5.000000 0.000000 0.000000 1.000000
-0.768301 -5.000000 0.762789 0.000000 -1.000000 0.000000
2.686037 2.936687 5.000000 0.000000 0.000000 1.000000
0.232459 4.031110 5.000000 0.000000 0.000000 1.000000
-0.063664 5.000000 1.273437 0.000000 -1.000000 0.000000
-4.137593 -3.894270 5.000000 0.000000 0.000000 1.000000
-5.000000 2.061023 3.685740 -1.000000 0.000000 0.000000
3.360770 4.740483 5.000000 0.000000 0.000000 1.000000
-3.746973 -4.598983 5.000000 0.000000 0.000000 1.000000
5.000000 4.368650 3.325217 1.000000 0.000000 0.000000
-3.486330 -4.890823 5.000000 0.000000 0.000000 1.000000
-3.106197 5.000000 4.310097 -0.000000 1.000000 0.000000
-3.733114 -5.000000 2.350473 0.000000 -1.000000 -0.000000
0.043387 -4.854183 5.000000 0.000000 0.000000 1.000000
-2.861280 -0.735001 5.000000 0.000000 0.000000 1.000000
3.319910 -5.000000 1.089343 0.000000 -1.000000 0.000000
0.976266 -1.242487 5.000000 -0.000000 0.000000 1.000000
2.002250 5.000000 2.667640 0.000000 1.000000 -0.000000
-5.000000 4.412877 3.337600 -1.000000 0.000000 0.000000
-3.362487 4.934837 5.000000 0.000000 0.000000 1.000000
0.327106 5.000000 3.270003 0.000000 -1.000000 -0.000000
-0.263710 -5.000000 1.071153 0.000000 1.000000 0.000000
3.047083 2.067863 5.000000 -0.000000 0.000000 1.000000
5.000000 4.564343 1.688720 1.000000 -0.000000 0.000000
-0.775799 -5.000000 4.530603 0.000000 -1.000000 0.000000
-3.126343 5.000000 3.345017 0.000000 1.000000 0.000000
0.667054 0.538653 5.000000 0.000000 -0.000000 1.000000
0.570786 5.000000 2.893433 -0.000000 1.000000 0.000000
-0.275630 2.655670 5.000000 0.000000 -0.000000 1.000000
-4.531900 -5.000000 1.617860 0.000000 -1.000000 -0.000000
1.266843 -3.467967 5.000000 0.000000 0.000000 1.000000
-5.000000 -2.169623 3.017890 -1.000000 0.000000 0.000000
5.000000 4.291964 4.805417 1.000000 0.000000 0.000000
-3.439233 3.456416 5.000000 0.000000 0.000000 1.000000
-3.376243 -0.833724 5.000000 0.000000 0.000000 1.000000
-3.456153 4.765467 5.000000 0.000000 0.000000 1.000000
0.906313 5.000000 2.839303 0.000000 1.000000 0.000000
-0.829486 -1.463987 5.000000 0.000000 -0.000000 1.000000
5.000000 -3.530423 0.132893 1.000000 -0.000000 0.000000
3.530423 5.000000 0.132893 0.000000 1.000000 0.000000
-5.000000 3.530423 0.132893 -1.000000 0.000000 0.000000
-3.530423 -5.000000 0.132891 0.000000 -1.000000 0.000000
1.957180 5.000000 0.421099 0.000000 1.000000 0.000000
0.632918 -2.815140 5.000000 0.000000 -0.000000 1.000000
-1.508987 -5.000000 1.621443 0.000000 -1.000000 0.000000
5.000000 -1.957180 0.421099 1.000000 -0.000000 0.000000
-5.000000 2.002250 2.667640 -1.000000 0.000000 0.000000
5.000000 -4.846220 4.012513 1.000000 0.000000 0.000000
-5.000000 0.327106 3.270004 -1.000000 0.000000 0.000000
5.000000 1.205590 4.335004 1.000000 -0.000000 0.000000
4.728047 -5.000000 4.505447 0.000000 -1.000000 0.000000
2.240133 -5.000000 2.380557 -0.000000 -1.000000 0.000000
4.935857 4.594060 5.000000 0.000000 0.000000 1.000000
5.000000 4.926760 0.362738 1.000000 0.000000 -0.000000
5.000000 -0.853574 3.896567 1.000000 0.000000 0.000000
-5.000000 3.653093 0.902793 -1.000000 0.000000 0.000000
4.926760 -5.000000 0.362738 0.000000 -1.000000 0.000000
-5.000000 0.081195 2.961277 -1.000000 0.000000 0.000000
-1.689620 5.000000 1.491997 0.000000 1.000000 0.000000
3.836270 5.000000 2.101637 0.000000 1.000000 0.000000
5.000000 -0.427240 0.643716 1.000000 0.000000 0.000000
0.427240 5.000000 0.643716 0.000000 1.000000 0.000000
1.724787 -0.911655 5.000000 -0.000000 0.000000 1.000000
0.092716 5.000000 4.581340 0.000000 1.000000 0.000000
4.541203 -0.188010 5.000000 0.000000 0.000000 1.000000
1.970817 5.000000 4.333124 0.000000 1.000000 -0.000000
4.564343 -5.000000 1.688720 0.000000 -1.000000 0.000000
0.861128 0.439571 5.000000 0.000000 -0.000000 1.000000
0.001580 1.553527 5.000000 0.000000 0.000000 1.000000
5.000000 1.058429 1.200660 1.000000 0.000000 0.000000
4.951443 -2.375000 5.000000 0.000000 -0.000000 1.000000
2.385517 -1.535767 5.000000 -0.000000 0.000000 1.000000
-5.000000 -1.832083 4.786037 -1.000000 0.000000 -0.000000
2.927116 -4.047023 5.000000 -0.000000 0.000000 1.000000
-5.000000 -1.607393 1.031706 -1.000000 0.000000 0.000000
2.526213 5.000000 1.965467 0.000000 1.000000 0.000000
-3.855763 -5.000000 1.211843 -0.000000 -1.000000 0.000000
0.181251 -5.000000 3.339423 0.000000 -1.000000 0.000000
4.653933 5.000000 4.481173 -0.000000 1.000000 0.000000
2.431330 -5.000000 3.857427 0.000000 -1.000000 0.000000
3.481447 5.000000 1.658800 0.000000 1.000000 0.000000
-3.667900 -1.629793 5.000000 0.000000 0.000000 1.000000
-0.232459 -4.031110 5.000000 0.000000 0.000000 1.000000
-1.315317 -5.000000 0.595459 0.000000 -1.000000 0.000000
1.714317 3.152787 5.000000 0.000000 -0.000000 1.000000
-5.000000 -1.261300 3.549580 -1.000000 0.000000 0.000000
-5.000000 4.493940 0.138532 -1.000000 0.000000 0.000000
5.000000 -4.493940 0.138532 1.000000 0.000000 0.000000
4.493940 5.000000 0.138532 -0.000000 1.000000 0.000000
-4.493940 -5.000000 0.138532 -0.000000 -1.000000 0.000000
1.272307 5.000000 2.767106 0.000000 1.000000 0.000000
-1.771350 -5.000000 3.773460 0.000000 -1.000000 -0.000000
0.345850 2.962780 5.000000 0.000000 0.000000 1.000000
-0.735001 2.861280 5.000000 0.000000 0.000000 1.000000
-0.038755 -5.000000 3.784993 0.000000 -1.000000 0.000000
4.688913 -4.866973 5.000000 0.000000 -0.000000 1.000000
-1.366003 -5.000000 3.598323 -0.000000 -1.000000 0.000000
4.210387 1.906457 5.000000 0.000000 0.000000 1.000000
-3.789600 3.659513 5.000000 0.000000 0.000000 1.000000
5.000000 2.879163 4.936076 1.000000 0.000000 -0.000000
4.687693 5.000000 2.769506 0.000000 1.000000 0.000000
-5.000000 -2.254563 2.887973 -1.000000 0.000000 0.000000
3.064860 5.000000 0.700748 0.000000 1.000000 0.000000
2.232213 5.000000 2.150953 -0.000000 1.000000 0.000000
-2.106523 4.609534 5.000000 0.000000 0.000000 1.000000
2.990877 4.893233 5.000000 0.000000 0.000000 1.000000
4.436577 1.282223 5.000000 -0.000000 0.000000 1.000000
-0.880351 -1.940860 5.000000 0.000000 0.000000 1.000000
